# .PCD v0.7 - Point Cloud Data file format
VERSION 0.7
FIELDS x y z intensity
SIZE 4 4 4 4
TYPE F F F F
COUNT 1 1 1 1
WIDTH 950
HEIGHT 1
VIEWPOINT 0 0 0 1 0 0 0
POINTS 950
DATA ascii
2.245894 0.181342 0.716603 0.685287
2.006868 0.446885 1.150276 0.538961
1.815918 -0.359579 1.308672 0.870955
2.087634 -0.318349 0.935230 0.500933
2.181054 0.173312 0.902279 0.927745
1.827199 -0.096141 1.185724 0.134722
2.247520 0.501089 0.738160 0.818713
2.214627 -0.078636 0.170108 0.713126
2.272338 -0.133074 0.203524 0.141663
2.020762 0.306483 1.094495 0.890833
1.718891 0.242953 0.416530 0.509348
2.332113 -0.013917 0.428438 0.922690
2.542526 -0.196162 0.729302 0.255516
2.012784 -0.357814 1.171538 0.900015
2.068748 0.057318 0.604311 0.932200
1.621213 0.172799 0.910666 0.218827
1.941945 0.330084 0.752867 0.920393
1.942769 0.017944 0.979637 0.237978
1.658093 -0.282182 1.075309 0.838148
1.963597 -0.323710 1.293156 0.739017
1.875440 -0.307845 0.696629 0.165640
1.777536 -0.334545 1.391367 0.294978
2.084114 -0.288788 0.853113 0.211432
1.901567 0.493550 1.240038 0.653338
2.374081 -0.085533 0.564917 0.883267
2.094809 -0.344541 0.053419 0.552843
1.810316 0.063727 0.832500 0.435192
2.080335 0.170260 0.583979 0.141885
1.856776 0.080849 0.496471 0.153535
1.167316 0.236595 0.902029 0.884003
1.680288 -0.031942 0.939996 0.203926
1.780500 0.128253 0.980302 0.848369
1.982212 -0.081319 0.828845 0.774501
2.271594 -0.017547 0.782018 0.256869
1.827958 0.507383 0.951134 0.115166
2.082823 -0.322977 1.054300 0.990623
2.433544 -0.330480 1.423072 0.361241
1.698599 0.091230 0.495476 0.547565
2.611655 -0.225600 0.886107 0.531990
1.876337 0.014859 0.654570 0.568645
2.229566 -0.107419 0.699675 0.300658
2.670275 0.678258 0.682336 0.968178
1.802706 0.862719 0.923625 0.201844
2.113065 -0.254194 0.210742 0.886966
1.913955 -0.484039 0.213443 0.329057
1.568767 -0.333858 0.555847 0.935678
2.304224 0.005668 0.573160 0.458777
2.076197 0.078175 1.278974 0.637660
1.767903 0.063866 0.527664 0.610411
1.672840 0.193643 1.391908 0.454049
1.755433 0.047272 0.342449 0.454658
2.369811 0.032058 0.698108 0.433626
1.562045 -0.000234 0.801066 0.377941
1.755565 -0.108028 0.482885 0.573004
1.917297 0.169887 0.443156 0.477711
2.044973 0.248394 0.749829 0.707910
2.406920 0.134209 1.169528 0.539660
1.723224 -0.218733 1.395310 0.283398
1.483133 0.249932 -0.171088 0.585303
1.654842 0.071858 0.956481 0.700579
2.369621 -0.647235 1.048290 0.202837
2.033080 0.159690 0.082334 0.406001
1.983021 -0.050685 0.978967 0.363670
2.451896 0.474299 1.205670 0.810473
1.982829 0.000554 1.008001 0.678186
2.002713 -0.174480 0.689609 0.454697
2.044544 -0.271259 -0.009543 0.540074
1.721947 -0.237708 0.525133 0.847820
1.963491 0.033727 1.268611 0.853557
1.569893 -0.214457 -0.095414 0.490202
2.232831 -0.015546 0.840345 0.615532
2.444808 -0.572493 1.214746 0.472696
2.321213 0.365796 0.252355 0.528230
2.114961 -0.057659 1.339065 0.859429
1.839487 0.433214 0.766789 0.435861
2.279660 -0.696218 0.260063 0.294710
2.067243 -0.060889 0.592656 0.939876
1.988195 0.134725 0.810567 0.720533
1.858684 0.142764 0.609281 0.143707
1.540182 -0.197700 0.491480 0.923029
1.773956 0.243171 0.928527 0.418618
1.702626 0.211249 0.342651 0.901734
2.130411 -0.300826 0.629467 0.503420
2.166838 0.353681 1.151412 0.301482
2.002707 -0.059071 1.569159 0.490500
1.357750 -0.611943 1.172545 0.836509
2.179634 0.056852 1.568125 0.494028
1.424524 -0.165729 0.049630 0.433668
1.963217 0.371455 1.328945 0.534894
2.676191 0.450917 0.968261 0.561480
2.335541 0.024136 0.418904 0.729121
1.168165 -0.165180 0.334376 0.156146
1.494325 -0.123270 1.171929 0.566184
1.910140 0.171779 0.863210 0.151090
1.276185 -0.139907 0.487441 0.615341
1.642827 -0.091485 1.170888 0.337524
2.277280 -0.270641 1.343671 0.434548
2.047044 -0.266769 0.498715 0.858963
1.464339 -0.093909 0.843973 0.494354
2.469323 0.231881 1.705566 0.366791
1.858860 0.267885 1.185606 0.535163
1.872599 -0.298537 0.619412 0.910174
2.417811 -0.142690 1.019155 0.650653
1.762667 -0.154012 0.674967 0.209747
1.779439 0.074014 0.311796 0.786260
1.775353 -0.182666 0.023863 0.896975
1.484351 -0.052734 1.015624 0.130704
2.189724 0.080101 1.174200 0.207684
1.676676 -0.099604 0.506819 0.624120
1.823924 -0.384362 1.256930 0.651004
1.859351 -0.389733 0.764424 0.254288
2.555219 0.376899 0.809263 0.514659
2.407029 0.299895 0.896758 0.249483
2.627206 -0.149259 0.991808 0.316474
1.885447 -0.011151 0.092831 0.383811
1.678644 0.077525 1.333521 0.700106
2.019633 0.144185 1.324956 0.181677
2.103342 -0.314681 1.240373 0.549824
2.018426 0.609138 0.477009 0.634000
2.433293 0.335097 0.515187 0.876854
2.014599 -0.119961 0.926607 0.919201
1.760338 -0.350535 0.460428 0.393996
2.863546 -0.489689 0.968852 0.873398
2.175994 -0.394629 1.008166 0.258410
2.201695 -0.264788 0.584640 0.851761
1.630874 -0.290709 0.589661 0.366796
1.729703 -0.309643 0.455408 0.310823
1.584102 -0.182082 0.794978 0.216091
1.813028 0.344996 1.074816 0.970043
1.457763 -0.161996 0.509830 0.893424
2.061434 0.013356 0.839701 0.760216
2.029311 0.201473 1.007683 0.903057
2.083131 0.266617 0.813140 0.274076
1.928411 -0.307521 0.728455 0.580904
2.040262 -0.251381 0.753122 0.550591
1.957278 -0.112817 0.105110 0.694029
1.808708 -0.121382 0.799400 0.858562
1.841231 -0.541084 0.602430 0.646636
1.943161 0.251627 1.160510 0.193027
1.637334 0.259316 1.579021 0.291716
1.918028 0.009421 0.421555 0.131519
2.184851 -0.618065 0.843554 0.335482
2.038844 -0.129628 0.693962 0.798370
1.869065 -0.335173 0.718581 0.690175
1.789713 -0.122358 0.562308 0.592439
1.802750 -0.308985 0.966408 0.712228
1.740378 0.268679 1.182154 0.953709
2.103947 -0.279763 0.772378 0.645827
1.468822 -0.055428 0.144674 0.687826
1.590883 -0.232301 1.494260 0.424716
7.087184 -2.429798 0.683256 0.928563
6.634601 -2.452669 0.403308 0.784602
7.446935 -2.089056 0.123170 0.894937
7.971307 -1.932021 0.597543 0.413063
8.900718 -1.640443 0.418188 0.502180
7.571707 -1.389084 0.433379 0.982257
7.581513 -1.723724 1.000203 0.694789
7.726852 -2.448086 0.483796 0.596254
10.084206 -2.265017 0.606437 0.959889
6.506268 -1.599466 0.187510 0.282299
6.670499 -1.802865 0.081179 0.619068
7.003143 -3.104054 0.634660 0.180921
9.089015 -2.125481 0.247684 0.239377
6.876209 -1.867746 0.738219 0.485032
9.105497 -1.812389 0.554441 0.844544
8.818558 -1.254888 0.457808 0.521843
8.749690 -1.522997 0.260078 0.702887
8.426188 -1.595240 0.597050 0.581143
9.605322 -2.297822 1.394866 0.152948
7.532215 -3.065345 0.210256 0.501587
8.484776 -1.509321 0.673557 0.755703
9.456997 -1.505535 0.550261 0.874067
7.475748 -2.166995 0.039369 0.235211
7.649322 -1.900232 1.004400 0.183661
9.212688 -1.753840 0.513701 0.726849
6.951940 -2.160251 0.389185 0.373464
10.790529 -2.520904 0.913576 0.811449
8.014047 -2.076523 0.686317 0.602127
7.478304 -1.264640 0.412168 0.248024
9.276078 -2.264982 0.113286 0.948047
9.913818 -1.206057 1.100490 0.686997
8.725376 -2.147276 0.205351 0.787095
6.790105 -2.892561 0.125460 0.246066
10.304435 -1.761040 0.137112 0.219182
8.127454 -1.814929 0.896771 0.269194
7.176956 -2.087354 0.327296 0.576760
7.724304 -1.767045 0.338085 0.134629
7.270041 -1.199164 0.826754 0.740085
7.593743 -1.720806 0.077093 0.500559
6.949953 -1.778771 0.400742 0.168340
6.469996 -3.036446 0.389831 0.938923
8.266469 -2.496852 0.187664 0.417558
7.490763 -2.037347 0.456921 0.440715
6.681130 -1.998939 0.922267 0.364825
6.719478 -3.232658 0.770309 0.174661
8.857103 -2.109962 0.404586 0.732312
7.010786 -2.791399 0.478662 0.980504
7.582767 -2.129534 0.210586 0.312679
9.170725 -1.316836 0.649869 0.146061
8.586817 -2.597135 0.648746 0.455765
7.433098 -1.650894 0.711523 0.555875
8.541100 -2.003850 1.431141 0.444534
8.126046 -2.567447 0.617666 0.695170
7.897438 -2.411706 0.377691 0.809179
8.633603 -2.097386 0.495989 0.507554
8.278516 -3.235480 0.964839 0.317004
8.205801 -1.411612 0.175548 0.882342
8.074511 -2.461582 0.804695 0.225943
7.987732 -2.227630 0.517017 0.282490
6.092347 -2.053472 0.597758 0.510724
6.808733 -2.249305 0.597984 0.144100
7.844290 -2.271660 0.929634 0.508191
7.507022 -2.152040 0.540508 0.765813
8.759238 -2.339773 0.585989 0.817382
8.520775 -1.736349 0.443489 0.376836
7.602239 -2.426735 0.441575 0.508034
8.091878 -1.518470 -0.347936 0.449119
8.317978 -2.373006 1.117018 0.577546
6.563904 -1.092313 0.162675 0.480578
8.810122 -1.642126 0.124293 0.105767
7.421619 -2.692637 0.469003 0.899804
8.204578 -1.975919 0.795016 0.315976
9.715961 -1.575773 0.447159 0.380042
8.835071 -1.651181 -0.208804 0.970803
9.576619 -1.980438 0.429534 0.996646
8.752484 -1.344683 0.498968 0.663864
8.152172 -1.798269 0.750929 0.189753
8.207328 -2.378357 1.080271 0.950940
9.633678 -2.082908 1.052777 0.709595
8.520416 -1.542800 0.150031 0.845067
7.422168 -1.746389 0.498252 0.782588
7.096479 -2.797755 0.907168 0.523588
7.097204 -1.548057 -0.002650 0.673431
5.339795 -2.351322 0.966215 0.749373
8.752844 -1.736026 0.639522 0.255910
6.618334 -2.036893 0.275364 0.165078
6.850148 -2.427054 0.106897 0.789788
6.617241 -2.696803 -0.033495 0.374865
7.092510 -1.960092 0.417570 0.386082
7.343025 -2.534227 0.294604 0.427115
8.063609 -2.545638 0.893856 0.980947
8.110862 -2.693565 0.504791 0.168001
7.761370 -1.060225 0.198112 0.331700
8.475438 -2.644626 0.271521 0.937284
7.500504 -1.861157 0.319796 0.754989
7.272043 -2.946473 0.509401 0.423969
8.964860 -2.486861 -0.348736 0.621870
8.420037 -2.327714 0.968391 0.510907
8.486240 -1.072679 0.382877 0.323213
7.168283 -1.341908 0.822509 0.253327
8.846960 -2.607418 0.879018 0.283019
8.004188 -2.772970 0.857975 0.147369
8.017041 -1.540575 0.753587 0.110170
8.612186 -1.413712 0.287908 0.212777
8.171964 -1.763281 0.430787 0.333807
8.809637 -1.052110 0.450739 0.947628
8.306769 -2.474950 0.227214 0.725158
8.165824 -1.749858 0.392478 0.454611
8.519746 -1.478581 0.472483 0.502057
8.205221 -1.711347 0.918532 0.375063
9.191244 -2.253825 0.228909 0.492942
7.054870 -1.015027 0.147386 0.638855
7.721122 -1.962808 -0.097771 0.588234
7.709945 -1.475970 0.301324 0.427437
8.225324 -2.439880 0.118891 0.693589
9.843993 -2.803408 0.648764 0.715120
7.051230 -0.545578 0.371117 0.913966
7.996756 -1.831568 0.879255 0.255870
7.757724 -1.350573 0.786307 0.281329
8.170751 -2.145700 0.350764 0.712487
8.142974 -1.701012 0.469057 0.547830
7.583186 -1.377637 1.014200 0.134395
8.990683 -1.594215 0.166444 0.339213
8.645649 -3.223104 0.332108 0.420569
8.520143 -2.243248 0.821220 0.346494
6.947359 -1.440853 0.657020 0.781359
9.835659 -1.846381 0.158888 0.385257
8.251826 -2.880006 0.399167 0.958930
7.409860 -2.111435 0.245187 0.647189
7.126632 -0.945515 0.641347 0.654927
7.678816 -2.050227 0.510383 0.872437
8.893228 -2.367870 -0.088400 0.426922
9.299034 -1.765702 0.418395 0.723681
8.451842 -1.336117 0.490061 0.806536
7.670192 -2.258093 0.241601 0.146254
7.888436 -2.218639 0.828660 0.976816
7.869941 -2.407141 0.988663 0.611319
6.653576 -1.654441 0.059268 0.981773
7.928624 -2.076068 0.939862 0.839656
8.346946 -0.853234 0.376679 0.789975
8.698163 -1.885109 0.438036 0.251057
8.876177 -1.870107 0.444835 0.248601
9.134306 -1.912936 0.853641 0.640173
6.912595 -1.902727 0.438776 0.744938
8.963829 -2.054766 -0.088053 0.376749
7.588855 -1.703725 0.497103 0.292585
5.587493 -2.324546 0.084133 0.766865
7.752003 -2.169980 0.720222 0.726253
7.308310 -1.351187 0.519433 0.731162
8.066850 -1.570108 0.764487 0.884090
7.164458 -1.773934 1.235398 0.625308
8.949654 -2.574661 0.344743 0.968644
8.535704 -1.576193 0.248345 0.284159
7.035313 -1.937856 0.347377 0.832013
8.056371 -2.560591 0.846298 0.216891
8.732154 -1.496636 0.821555 0.641148
9.119834 -3.029877 0.610714 0.483223
8.442967 -2.258650 -0.103778 0.663065
7.539713 -2.724010 0.229730 0.742409
7.411727 -1.680278 0.223480 0.106809
7.388613 -2.383409 0.272418 0.467142
8.004495 -2.141249 0.572790 0.613857
8.552873 -2.459338 0.420516 0.198913
6.421717 -2.336940 0.630559 0.313937
6.926443 -2.021444 0.364674 0.532305
8.017770 -2.138255 0.721740 0.513378
7.797834 -1.426926 1.008341 0.304210
7.602432 -1.932644 0.522612 0.894908
9.024433 -1.748457 0.703106 0.489301
8.572815 -2.188237 0.475515 0.943222
6.931783 -1.848458 0.578626 0.451352
8.606138 -1.891110 0.439042 0.561117
8.136267 -2.467137 0.434117 0.397171
8.416256 -2.518235 0.506552 0.258323
8.088541 -1.343790 0.470826 0.917243
7.611268 -1.347351 0.305041 0.906245
7.995917 -2.741817 0.582291 0.936946
8.254572 -2.442522 0.417062 0.593893
8.599252 -2.220623 0.405752 0.973776
8.288741 -1.862481 0.303905 0.242955
8.065021 -2.439171 0.781959 0.346237
8.436898 -1.649011 0.151677 0.196133
6.582429 -1.760228 0.928366 0.773697
7.167357 -1.257218 0.632974 0.466117
8.038851 -2.124557 -0.046546 0.952292
6.599102 -2.093632 0.126347 0.399417
8.861677 -2.667460 -0.137737 0.609214
8.050302 -2.261148 0.767301 0.394126
8.500989 -0.896509 0.278440 0.596050
8.515250 -1.680750 0.176680 0.840471
8.604147 -1.292139 0.633132 0.485691
7.112098 -1.902595 -0.041851 0.520329
9.189107 -2.046548 0.576556 0.297615
8.374532 -1.530091 0.798416 0.875952
7.906536 -2.304553 0.390481 0.321704
8.126851 -2.662839 0.220935 0.498837
9.020320 -1.711164 0.357724 0.840317
8.023595 -1.460947 0.478965 0.170935
7.256928 -2.266047 0.364085 0.243000
8.249101 -1.588612 0.635948 0.742915
8.855525 -2.937193 0.566295 0.654841
8.453681 -1.790751 0.784224 0.911612
9.928707 -1.887785 0.896933 0.459497
8.113246 -1.781296 0.061113 0.462601
7.313195 -1.809613 0.263457 0.269027
8.410702 -1.716803 0.429661 0.873758
8.290415 -2.115165 0.604266 0.840054
9.937752 -2.672277 0.282628 0.507968
10.519662 -1.343815 -0.086949 0.394711
9.247289 -1.224162 0.434646 0.802979
8.620846 -1.286232 0.120368 0.354668
9.203325 -2.116250 0.409854 0.342316
6.557138 -2.178961 0.107578 0.648331
6.178448 -2.442953 0.544827 0.178314
7.078294 -1.074886 0.692931 0.438754
8.085187 -1.346276 0.615441 0.855790
7.795475 -1.376244 0.222926 0.686136
9.374910 -1.932652 0.134853 0.191619
7.472163 -2.449047 0.907864 0.235320
8.241251 -2.464452 0.597615 0.361592
7.899154 -2.024031 -0.218849 0.249451
7.892878 -2.483312 0.590385 0.279801
10.907309 -1.947847 0.473188 0.652777
9.379938 -3.039264 0.374024 0.194234
7.799880 -2.042367 0.263750 0.322636
8.219207 -3.099505 0.386264 0.610848
9.035659 -2.363927 0.553894 0.659755
8.690504 -0.718741 0.584559 0.256576
7.494277 -2.366007 0.361481 0.868445
7.095386 -1.993053 0.343017 0.766439
7.689850 -1.933741 0.264291 0.121325
8.911110 -2.321900 0.621716 0.394591
8.865606 -2.590208 0.619238 0.698397
7.583926 -2.324948 0.995360 0.953895
7.446731 -1.759907 0.495501 0.348710
6.701609 -1.364276 -0.044559 0.382719
7.416510 -1.558133 0.590677 0.408394
8.766235 -1.642842 0.715810 0.274745
7.897829 -0.911849 0.145372 0.269916
7.258327 -1.837434 0.712890 0.310044
7.780442 -1.936096 -0.115645 0.579552
7.938793 -2.599476 0.277275 0.717195
7.541497 -2.446480 0.883752 0.246666
5.467735 -2.170151 0.428174 0.886692
7.979736 -1.452563 0.407707 0.110210
7.276956 -1.100391 0.617448 0.233094
6.451801 -1.399078 0.544982 0.908983
7.494067 -2.210986 0.864897 0.193530
7.870328 -2.298112 0.285038 0.790407
8.601885 -2.755828 1.042053 0.801943
9.913134 -2.184979 0.419622 0.521999
7.489545 -2.438878 0.329220 0.764696
7.761711 -2.096664 -0.309500 0.165528
9.186105 -1.820100 0.086449 0.872182
8.632515 -2.567133 0.558422 0.621556
7.444486 -2.847188 0.473839 0.958408
8.916615 -0.687882 0.288665 0.816614
7.625189 -2.374461 0.844436 0.906470
7.927169 -2.122538 0.590560 0.472823
8.708170 -1.983835 0.615551 0.418938
7.234847 -1.709551 0.425893 0.197848
7.286236 -2.188835 0.584168 0.689723
7.817884 -1.902777 0.046378 0.170912
8.636446 -2.092547 0.822669 0.883501
8.855231 -1.782132 0.191280 0.207667
8.951863 -0.933409 0.486876 0.498553
7.325085 -1.994275 0.438698 0.485104
5.542537 -2.003017 0.628331 0.977858
7.425937 -2.419310 0.613438 0.126614
7.722864 -1.286967 0.310100 0.414140
6.663316 -2.460298 0.351354 0.461895
7.141450 -1.308271 0.002508 0.464782
7.226741 -1.765487 0.507280 0.380839
10.519748 -2.391358 0.212394 0.207954
8.724603 -2.052003 0.511310 0.386335
7.142410 -1.806153 0.723470 0.479150
8.932096 -2.172059 0.677915 0.437667
9.342487 -2.433146 0.351437 0.864730
8.080752 -1.626861 0.233657 0.625642
7.191424 -2.289004 0.407729 0.459537
6.612266 -1.929811 0.617497 0.990128
6.978904 -1.366359 0.188540 0.859366
7.250832 -2.586595 0.743533 0.728634
8.295141 -2.182271 0.095327 0.967922
6.896274 -1.484138 0.776792 0.619951
7.576481 -2.225503 0.901535 0.963752
7.876016 -1.692772 0.201892 0.161469
8.706905 -1.583894 1.062317 0.735770
8.041789 -3.038385 0.370387 0.774055
6.647553 -3.242992 0.613234 0.611516
9.229487 -2.489358 0.152010 0.868092
6.610665 -2.202097 0.775341 0.968940
8.591166 -1.780233 0.727957 0.927594
10.399425 -1.368492 0.860726 0.705810
10.070227 -2.176680 0.771577 0.170612
8.584924 -1.978908 0.865303 0.133422
8.119425 -0.910780 0.219795 0.360198
7.163678 -1.894849 0.425098 0.504876
8.725416 -1.697481 0.681989 0.840914
9.355301 -1.970874 0.666140 0.692150
8.737172 -1.921289 0.121418 0.937787
-8.078374 5.829896 0.007524 0.177697
13.786261 1.170948 0.064507 0.462233
-3.676875 6.924018 0.100993 0.929012
11.011649 3.012131 0.048172 0.456547
6.235084 7.507269 -0.029123 0.444857
-1.837919 4.861399 -0.065252 0.731315
11.562181 1.342592 -0.116129 0.505949
12.223464 6.811271 -0.034788 0.439623
4.924218 0.327315 0.085343 0.842869
-0.805168 -6.982836 -0.048665 0.385499
7.619901 -3.763413 0.203943 0.268196
-5.944403 5.304353 0.038205 0.740796
7.505333 -4.855087 0.054708 0.498906
2.015172 7.713613 0.137465 0.248684
-8.759671 -6.538948 -0.023292 0.848208
-5.534384 -1.669618 -0.040515 0.140591
-2.576428 -0.906988 -0.047876 0.831892
12.661311 5.403507 0.056507 0.887717
-8.005745 6.325228 0.189135 0.902691
3.195859 6.941375 0.193563 0.170167
13.796549 -0.558678 -0.060360 0.986652
7.357258 -4.496980 -0.074900 0.763678
0.292307 -2.485476 0.044664 0.581300
-9.505042 -7.735064 0.027454 0.170282
4.529096 7.738196 -0.124076 0.186535
-9.652041 5.008243 -0.012075 0.294462
-2.465239 -2.132039 0.215381 0.865472
-4.476323 4.336702 0.058215 0.111707
-8.858267 -1.570129 0.162708 0.973538
0.860760 -7.627379 -0.074528 0.213832
9.819461 5.718114 -0.058904 0.915100
7.223818 -7.968228 0.033115 0.244694
14.862795 -3.214820 0.006224 0.909230
7.116307 3.556907 -0.077861 0.950171
-5.361586 -6.620146 0.038364 0.377117
8.299140 5.929745 -0.071464 0.724483
14.179454 2.965534 0.224617 0.559461
9.741880 7.514015 -0.072658 0.821077
6.868866 -2.445065 -0.171257 0.201603
11.514741 -5.851678 -0.030854 0.169512
4.817049 1.516851 -0.069943 0.618639
-6.004632 1.799713 -0.031240 0.121519
0.342758 -7.327222 -0.047097 0.469379
-8.842481 -6.699315 -0.241835 0.690242
7.206406 -4.178600 0.097957 0.273282
-9.607890 3.672662 -0.060033 0.751409
6.377702 -6.280917 0.047051 0.223840
-5.176489 -5.577522 -0.020425 0.235074
4.694417 7.179717 -0.015671 0.456993
5.628142 7.535057 -0.103605 0.313651
-4.515783 -4.361469 -0.105296 0.115271
3.331558 -1.735106 -0.011320 0.413086
14.193649 -1.706760 -0.180994 0.707118
14.615132 -5.593240 -0.065217 0.687854
6.863233 6.493268 -0.192763 0.658640
-1.540180 -3.060606 -0.197921 0.800738
-2.088594 -0.732393 -0.011947 0.836921
10.600087 3.532893 0.022425 0.239219
3.211019 2.214940 0.013979 0.154537
0.424173 -2.830448 0.004086 0.366775
7.309687 -4.822216 -0.010701 0.961833
2.345008 5.535100 -0.062114 0.983382
9.769834 6.292703 -0.171780 0.455135
4.219501 6.850314 -0.025773 0.548505
-1.105364 -2.844124 -0.045120 0.387744
1.621251 5.262232 -0.023663 0.493387
11.767955 4.777703 0.065728 0.260804
13.502455 3.653425 0.038806 0.823578
-6.038139 -5.813570 0.001426 0.891649
4.743218 -6.796676 -0.215987 0.110747
-9.567786 1.942380 0.035694 0.388038
5.956192 4.495763 0.014669 0.954363
-2.373471 0.918595 -0.142183 0.530016
-8.365790 5.731387 -0.058744 0.711976
6.882985 0.660702 -0.176977 0.808406
13.211873 -2.082251 -0.018403 0.315491
3.875781 6.681148 -0.040072 0.762909
8.739823 2.709482 -0.073643 0.912799
0.688815 2.991870 0.128096 0.437427
4.694643 -6.353665 0.088051 0.619958
-9.412479 5.818654 0.224130 0.223493
0.426415 -2.730084 -0.055274 0.676607
10.310771 -5.632144 -0.058152 0.619748
-0.087366 -3.269906 -0.028063 0.763012
-4.004574 -6.812236 -0.000999 0.862006
1.384002 0.514215 -0.053800 0.903822
-4.064033 -5.400100 -0.111955 0.873947
-0.412357 -5.735524 0.109050 0.725003
-2.354606 4.493290 -0.099567 0.495188
11.729368 -2.188954 -0.020025 0.129172
-4.106505 5.935933 -0.074916 0.854184
-7.703738 1.652576 -0.126409 0.987280
6.240737 7.333094 -0.059175 0.870438
12.297344 5.318260 0.019375 0.849929
10.915749 5.828405 -0.023211 0.910936
2.455973 -0.531385 -0.162823 0.924551
11.999622 -1.301903 0.021517 0.667154
12.854478 -4.458590 -0.060688 0.472403
8.975925 6.332974 0.157910 0.383566
12.342179 0.432093 -0.028066 0.999490
-9.940512 -1.641375 -0.082731 0.872903
-4.931458 3.261925 -0.035423 0.798077
9.444034 -7.597514 0.034842 0.981383
8.461221 6.891749 0.045621 0.777753
3.483933 5.312907 -0.105772 0.484343
11.244723 5.580433 -0.136081 0.969350
-1.906634 -4.384018 -0.055045 0.309653
11.647961 -2.516257 -0.058297 0.477425
-8.582637 2.413183 0.059547 0.122281
12.140445 3.719022 0.158133 0.243808
8.531898 -4.635085 -0.056289 0.940761
11.736533 6.309502 0.026816 0.467623
6.692556 7.626904 0.092650 0.317871
-7.030485 -3.319021 -0.038993 0.480204
13.706089 -5.010581 -0.028930 0.266028
-1.985199 7.905644 -0.037018 0.756618
2.827303 -0.061664 0.045535 0.740725
9.050207 3.755242 0.022423 0.896986
-1.138384 6.208112 0.127226 0.812687
3.274662 1.018900 -0.047068 0.835845
5.162319 4.643182 -0.081628 0.318686
9.969523 -7.763564 -0.198693 0.245962
9.468738 -3.183244 0.089310 0.983508
-6.883743 -4.930026 0.055366 0.235228
8.164200 1.035373 0.030643 0.263539
3.639823 4.615846 -0.128656 0.668830
1.355578 4.077172 0.042991 0.103464
7.079513 -5.328830 0.017541 0.555863
7.364748 -3.763632 0.176126 0.945260
12.404829 -4.868620 0.143057 0.459514
9.723339 2.928682 -0.058458 0.114497
-4.485853 5.463734 -0.018801 0.703375
7.616365 3.225882 -0.023512 0.497122
-2.923567 -2.242183 0.074415 0.993823
-2.125672 6.822157 -0.033722 0.818653
14.763945 -1.468603 0.041920 0.452970
0.560647 -4.601273 -0.075338 0.151460
3.780084 -0.006469 0.026955 0.832917
10.094837 0.240747 0.094664 0.863439
14.122287 -0.609852 0.007690 0.452132
-6.246745 7.670488 0.040490 0.407409
9.849523 3.622597 0.114047 0.495679
3.900868 4.163791 0.018399 0.348267
6.359878 -2.676832 -0.016696 0.883537
-1.683561 -1.259826 0.016889 0.301363
-2.524061 -6.170346 0.064196 0.411145
1.201970 4.933028 -0.130697 0.985199
-7.915291 -7.233283 0.011348 0.157698
-2.550828 5.581855 0.156885 0.723402
-4.217305 -7.087217 -0.105633 0.784957
11.347235 -0.419800 -0.211852 0.970657
-0.250212 7.005803 -0.182739 0.857354
-7.521814 -4.934042 0.006083 0.414371
-5.614240 2.533492 -0.094437 0.740000
-5.550836 7.822961 -0.098593 0.866684
-0.213633 -0.459635 0.095800 0.476602
-9.521736 7.064183 0.157668 0.603847
1.738850 -7.206469 0.017094 0.804007
12.639967 5.548128 -0.035817 0.879573
-7.753128 3.101488 0.084928 0.533376
-6.618583 0.524102 0.005024 0.430285
-6.595802 4.859199 0.147534 0.178015
9.356707 4.229610 -0.067113 0.253211
0.018734 -5.305507 0.041188 0.154537
-2.243894 2.020649 0.088452 0.997517
-6.571420 -2.207280 -0.084768 0.414675
6.262393 -4.499238 0.022752 0.662731
-0.541640 1.186649 -0.037537 0.722374
4.923026 5.397367 -0.036897 0.343740
7.482807 4.639681 0.034286 0.672813
-9.390726 3.951248 0.138885 0.579013
11.722659 -6.122776 -0.106517 0.492581
0.765141 0.056085 0.107138 0.391918
3.187747 -6.904439 0.111553 0.113115
11.433909 -7.622071 0.011464 0.429580
14.505079 -2.674792 0.092418 0.267439
10.422115 0.838652 -0.036122 0.461378
0.322674 -1.952856 0.112547 0.709771
-7.149584 -5.291002 0.246237 0.526116
-1.856486 -6.999334 -0.140851 0.856856
9.578608 0.910175 -0.059709 0.542296
-0.538177 -3.366830 -0.152480 0.178958
-9.462681 -5.697376 -0.105205 0.428381
-1.812543 -4.972672 -0.121118 0.365630
10.430297 -4.715951 0.038202 0.151748
3.794498 7.721840 0.084116 0.221111
8.297201 0.130700 -0.056114 0.741873
5.343407 -6.441113 0.101468 0.650585
10.912120 4.721486 -0.154513 0.656449
-1.136235 6.287887 0.071294 0.416563
-9.719136 2.580225 0.015073 0.980357
1.798570 6.520487 0.010841 0.887000
6.960343 -6.226192 -0.084858 0.726083
12.349118 -0.871437 -0.047595 0.734530
7.936712 7.296592 -0.009625 0.631616
11.954113 -6.806685 0.072047 0.644801
3.517918 6.044656 0.221165 0.868262
9.938711 7.898905 -0.083268 0.478759
-0.052275 -5.281515 0.047908 0.617663
-8.019988 7.411318 0.130696 0.191321
-9.006069 3.641122 0.065639 0.338027
9.993684 0.025510 -0.044106 0.649124
13.137731 3.419435 0.024955 0.292485
4.725424 0.817555 0.130220 0.473108
0.999265 -1.985545 -0.200027 0.799002
-9.535984 -7.366108 0.115101 0.407405
10.813954 -0.290735 -0.045305 0.468538
-1.118332 -6.033032 0.074292 0.676241
11.596091 -0.182736 0.008200 0.323652
-8.594996 -3.348204 0.031438 0.665031
-9.323727 -0.731239 -0.053662 0.577535
11.352474 -7.156787 0.000380 0.885520
7.245866 -6.697020 0.014325 0.429454
14.979435 -7.311108 0.151070 0.746149
14.672323 0.049014 -0.058540 0.828070
-6.480386 6.325466 0.039575 0.884584
12.885582 -4.398351 -0.034141 0.312653
-2.626728 -0.546279 0.068780 0.755376
-7.947913 1.276165 -0.147607 0.718665
8.901165 4.039474 -0.154918 0.269726
5.715200 5.155679 0.019231 0.711932
-4.743810 -6.635172 -0.009403 0.181809
12.905506 6.508118 -0.072849 0.536605
-5.738713 -5.391850 -0.133817 0.831281
-2.670781 3.585568 0.202562 0.557731
12.518229 -2.837527 -0.081448 0.538258
9.602924 -5.437295 0.127064 0.708198
-0.631997 6.683478 0.132490 0.582911
-6.877698 -4.019907 -0.021055 0.380125
-6.906497 6.549078 -0.041586 0.562774
-5.689039 -3.766254 -0.061700 0.563247
-0.039807 2.407448 0.086908 0.801874
0.053075 0.990290 0.001489 0.770818
-9.476624 1.746729 -0.054287 0.337137
5.500529 5.568167 -0.012569 0.592772
-6.983129 -1.850550 -0.001519 0.508774
14.646307 -2.359896 -0.031790 0.761784
-9.758199 0.281002 -0.010379 0.633309
9.429130 5.388230 0.046102 0.745838
6.644112 2.254064 0.047649 0.981754
7.492292 1.884782 0.082699 0.496373
9.278417 4.441119 -0.071052 0.277230
8.956980 -4.370968 -0.001879 0.141488
-9.954455 2.875637 -0.043650 0.824831
2.833431 3.239921 0.104833 0.119618
-8.860615 -2.689079 -0.045985 0.743251
10.676144 -3.917318 0.059598 0.122196
-6.277646 -3.388874 -0.090151 0.873010
-7.831711 -6.822904 -0.077453 0.718965
11.299260 7.534222 -0.068732 0.925253
-1.537594 -2.928340 -0.069265 0.318977
12.710369 1.229510 0.201234 0.242978
-8.400374 -5.931080 0.006047 0.149429
-3.274521 -1.233198 -0.071116 0.859566
9.572188 -2.387667 0.018524 0.102263
-0.045708 -5.468383 0.053191 0.697287
11.924590 6.365082 0.003858 0.651235
-8.077418 0.315223 -0.108878 0.735416
9.888057 1.774725 -0.044139 0.178230
6.866771 -4.131088 0.044455 0.618647
-0.075782 -3.652273 0.022776 0.504834
12.589401 2.069645 -0.207936 0.122452
13.010019 -2.804420 0.045900 0.271734
-7.900712 5.098606 0.101229 0.845106
11.179646 6.003034 0.051881 0.367927
-0.920799 2.022985 -0.028615 0.212113
7.166576 -5.692749 -0.081641 0.394901
9.560116 -2.302026 -0.040642 0.918970
-0.596449 -4.482799 -0.086452 0.521304
-3.363747 -6.066117 0.097556 0.554129
-6.712408 -3.701664 0.067425 0.165001
3.424980 -4.712436 -0.101347 0.915282
-8.344204 -5.905841 0.011424 0.180989
2.470094 -7.916498 0.086523 0.403427
10.306052 0.666694 0.096410 0.777841
0.788758 -5.252161 0.057497 0.505376
-1.514300 -3.606574 -0.050692 0.729134
3.318754 -1.883748 -0.137060 0.208487
0.675523 0.803074 -0.075314 0.956464
-8.354490 -0.343266 0.015953 0.653185
10.570977 -3.799500 0.036673 0.348182
0.374676 5.602877 0.057969 0.525109
10.878052 3.193211 -0.001013 0.437424
6.919120 -0.286254 -0.088741 0.575133
3.476820 0.315209 0.055779 0.573322
6.309780 3.022073 0.031029 0.369361
4.636847 4.725077 0.038968 0.275641
-8.629440 -1.500674 0.054342 0.936280
-5.985643 4.151113 -0.130954 0.504283
-2.517243 -3.704672 -0.009518 0.828703
2.689153 1.534988 0.047916 0.864451
-1.583304 2.363820 -0.010693 0.963939
9.122325 0.331373 -0.130409 0.380266
-5.372109 -0.017609 0.075834 0.257296
4.605421 3.432625 0.083563 0.824488
-6.650322 -6.360262 -0.189445 0.249564
-1.326625 -2.973698 -0.043448 0.774046
6.418514 5.197340 0.207796 0.764431
-1.917982 -7.791648 -0.011152 0.315456
-5.694623 2.544985 0.061700 0.201222
-7.403123 -2.207120 -0.089155 0.783329
9.614445 -1.905206 0.021510 0.566710
-0.883734 -3.565074 0.103889 0.734280
12.362295 -5.766091 0.074979 0.796113
3.045309 0.152376 -0.129236 0.284198
4.346655 -7.709664 -0.025167 0.649603
14.501267 -0.920710 -0.139746 0.794850
-0.927114 7.662781 0.057809 0.362399
1.122906 6.379861 -0.046608 0.296141
2.254612 4.665309 -0.195054 0.879333
11.773372 2.602842 -0.016062 0.577402
-5.061266 7.283817 -0.102421 0.444318
4.389526 5.669523 -0.181060 0.876775
7.221860 2.958326 0.078925 0.905828
-2.782306 4.040584 -0.026531 0.666468
-5.847644 1.452016 -0.035197 0.603250
5.869079 -4.860859 -0.085210 0.762411
11.112382 2.425783 -0.106496 0.161513
-2.094751 -3.871014 -0.052225 0.468623
-7.970826 2.412238 0.157160 0.352580
-1.857820 -2.547194 0.024620 0.332932
13.022219 4.261474 0.087717 0.317069
-9.792102 0.518524 0.077308 0.995481
4.924972 6.603064 0.055665 0.439503
2.593816 5.154468 -0.169479 0.600072
1.732726 -4.765153 -0.127938 0.925077
0.230309 5.912707 0.103701 0.277848
0.767186 0.188330 0.021113 0.898399
13.596261 6.147121 -0.007490 0.794105
-3.087934 2.947406 -0.038165 0.624780
-8.432817 -3.420585 -0.044633 0.159705
-6.578246 5.494334 0.194920 0.944168
2.875508 7.067481 0.077873 0.780846
5.946473 0.283826 -0.095634 0.165870
6.320965 -4.878743 -0.025679 0.793442
6.221302 7.363274 0.149393 0.128801
-2.694858 -6.921349 -0.009229 0.346370
0.870541 -1.214603 -0.150336 0.601267
2.786254 -7.219759 -0.027951 0.916066
3.941749 5.998378 -0.017518 0.400253
3.791810 -5.712364 -0.051848 0.241600
-3.384956 -2.033640 -0.027039 0.758834
4.406746 3.144114 -0.275957 0.372422
13.792599 2.507776 -0.017947 0.874245
7.523670 -5.147407 0.019960 0.667532
-7.790652 -7.455115 0.227380 0.573468
7.380078 -1.963634 -0.097548 0.373502
11.586425 -6.824195 -0.006307 0.285920
-5.207415 7.192146 -0.091663 0.739821
0.061998 5.237841 -0.003685 0.611801
10.737425 4.573145 -0.189853 0.289545
-1.064036 -1.067763 0.215009 0.186073
-6.395012 0.715829 -0.123189 0.248253
-3.095998 7.647940 -0.128597 0.675552
5.238657 -2.169163 0.128472 0.348254
-5.312957 2.508961 0.001567 0.215403
-5.343238 -3.640989 0.011572 0.309342
13.873097 -6.323560 0.198289 0.972365
3.215648 -7.609201 0.098703 0.221100
-2.861482 -1.951934 -0.119714 0.406453
-7.245674 6.782672 0.043207 0.253406
11.074464 -4.030276 -0.156426 0.529382
-0.816851 4.825513 0.070747 0.974543
12.944133 -1.483990 -0.137778 0.605946
11.835547 -5.233680 -0.103517 0.522680
9.293373 1.012626 -0.125063 0.510764
-6.294406 1.091239 0.004270 0.526096
-9.431793 -5.755507 -0.039740 0.161711
5.300593 7.748438 -0.008626 0.818242
-1.270343 5.761346 0.294863 0.958725
2.999869 1.609603 0.030949 0.429436
-2.176421 -4.824706 0.245603 0.218297
-7.933510 -0.308970 0.065542 0.160943
8.536214 -3.006349 0.142404 0.908262
4.447623 -3.996819 -0.081359 0.824249
2.501460 2.115308 -0.003575 0.313320
6.708960 2.936033 0.035373 0.471653
-3.916352 6.962405 0.087120 0.443148
1.898074 -3.175529 -0.039068 0.734210
13.035005 4.947986 0.109991 0.538004
5.990890 -3.160348 0.025767 0.836952
-7.954279 -3.586808 0.021265 0.594836
14.244265 3.313816 -0.174239 0.305486
8.208424 6.279629 -0.089934 0.506427
-6.183118 -4.824158 -0.067084 0.420708
9.038240 -4.173014 0.065651 0.574364
6.115269 -7.295754 0.165469 0.986100
-9.749740 -1.875416 0.063799 0.808944
12.216906 -6.787102 -0.020356 0.645272
3.119463 0.775256 0.155313 0.379851
14.737554 6.235998 0.088455 0.463197
-8.245668 6.136630 0.213924 0.474869
7.738882 -7.317428 0.051910 0.764445
8.383386 -1.523426 0.061059 0.660993
9.650117 4.807343 0.188691 0.149443
0.095105 -2.254618 -0.043736 0.422087
8.140694 -4.672561 -0.069478 0.575911
4.200288 4.269313 0.028256 0.536793
8.371193 -1.629862 -0.015039 0.772521
7.176414 -6.801578 -0.081980 0.885376
-6.550639 -2.000004 0.084973 0.279749
0.953191 -4.420062 -0.034456 0.250270
7.219798 -0.776738 -0.040408 0.403043
13.233980 2.427967 0.070355 0.665091
-1.489422 5.115310 0.127004 0.959076
-0.913201 6.260688 0.003211 0.301865
13.820223 1.031032 -0.166766 0.300066
-2.339411 3.554379 -0.039928 0.993533
-6.432851 6.307013 -0.131953 0.770339
10.872906 -5.671941 -0.036268 0.745531
1.168145 4.702184 -0.048964 0.773268
10.354208 7.193125 0.105891 0.664000
3.146590 -4.518315 0.044449 0.403366
5.612830 -5.279587 -0.194607 0.853150
13.844720 -4.841242 -0.044845 0.350979
10.539470 -1.986435 0.217336 0.317518
8.279846 0.034689 -0.072568 0.506571
1.882627 -2.767222 0.048186 0.627328
11.433936 1.703862 0.067804 0.953995
-9.895230 1.100363 -0.117661 0.333851
4.028295 -1.542106 -0.006488 0.838812
10.649941 -4.318957 0.052282 0.629688
-8.526132 -2.551625 0.130900 0.394781
14.681934 5.878488 0.111113 0.817339
-0.697086 -5.862468 -0.025630 0.715585
-2.499404 2.361554 0.157994 0.114230
4.338780 5.655955 -0.038572 0.932639
2.955973 4.178053 -0.005682 0.232832
5.392862 -1.376910 -0.007494 0.358047
9.223490 -7.353262 0.075004 0.680927
1.794705 1.671370 -0.009157 0.537161
12.585953 -1.902905 0.019650 0.788522
-1.031372 6.903681 0.144000 0.381286
14.280137 6.112037 -0.016923 0.236709
6.749080 4.371981 0.034258 0.570308
-0.331283 6.702674 0.052220 0.227466
10.260244 6.089087 -0.094320 0.964087
-3.090138 -1.754537 0.004666 0.205270
12.316988 2.938095 0.132242 0.533581
-1.568043 1.553911 0.011023 0.361557
13.535599 7.217642 -0.119412 0.311517
3.427983 3.592543 -0.044341 0.664527
6.702351 0.705353 0.115824 0.186091
-3.168407 6.007322 -0.016858 0.267330
14.332833 -5.061914 -0.027822 0.834706
9.176849 0.973148 0.026637 0.653956
9.790422 4.313139 0.023392 0.257202
7.411695 3.067652 0.042825 0.372216
1.060919 5.313238 0.138330 0.367982
-8.736298 2.988675 0.042336 0.724700
11.730652 1.226482 -0.008929 0.948693
10.976769 2.092444 -0.014199 0.474500
0.287732 0.020057 -0.028388 0.520401
-3.109320 -0.508174 0.101064 0.339122
-4.067065 0.367350 -0.027490 0.354109
-0.254936 7.502808 0.060756 0.805764
-8.864582 6.494674 -0.013986 0.887412
-7.619497 -1.283824 -0.027085 0.331982
5.393143 5.138278 0.004509 0.822443
-2.709228 -4.055083 -0.046215 0.718243
14.471157 -6.355924 0.045609 0.567502
-5.605997 5.195786 0.017326 0.175998
3.921790 0.895452 -0.075674 0.569125
-6.690119 -0.284297 0.007719 0.532882
3.227207 -3.187463 -0.118741 0.678630
1.966446 -6.013601 0.082127 0.136338
-2.486284 6.047009 -0.035181 0.657308
-8.760522 6.780037 -0.055535 0.947390
-5.446448 1.308148 0.062134 0.717143
-6.683535 7.397791 -0.046623 0.517117
-7.109154 6.712505 -0.018636 0.768315
-1.355480 6.757750 -0.000860 0.138286
-2.550739 2.251835 -0.050867 0.431868
10.189901 -4.116917 -0.254078 0.779475
12.053395 -6.467304 0.013612 0.286873
12.093805 -2.297369 0.096725 0.718645
14.767963 5.976680 -0.025182 0.501445
6.349731 -7.433102 0.120157 0.899325
-3.120034 -4.295644 -0.043646 0.829916
-4.379464 -3.554008 0.090091 0.810932
8.059220 -6.337529 0.002903 0.202631
4.040526 -3.587394 -0.077181 0.267868
-7.378086 2.665525 -0.033129 0.640421
10.702068 3.541967 0.112854 0.166253
-5.224966 -2.094287 0.013472 0.279284
7.006956 7.766796 0.066974 0.572672
-5.295538 -2.739826 0.207524 0.764925
0.582870 -7.752528 -0.111473 0.916565
2.944056 1.579732 -0.032959 0.461069
11.904145 6.225104 0.054242 0.616031
7.072027 -1.945928 -0.022024 0.221856
-5.146211 6.833816 -0.002524 0.858315
-4.595912 2.179422 0.062180 0.191711
-6.100813 -3.670199 0.080925 0.332923
-5.944849 -4.372025 0.108624 0.918169
6.082081 0.696722 -0.019644 0.380651
14.197460 -3.922288 0.025046 0.254797
12.053840 2.777832 -0.183623 0.481667
12.603810 1.270577 -0.097483 0.332001
